0.000000 0.000000 0.000000
-4.951810 -4.139730 -11.566740
-4.952030 -4.140840 -11.566250
-4.722640 -3.614510 -11.512190
-0.173730 -18.166130 1.491230
-19.980000 5.043050 14.955040
-4.943230 24.767310 -7.584850
5.858830 -26.524540 -12.001230
18.989700 25.414260 -5.285230
25.815320 -6.213530 -19.187730
-33.755092 1.805942 0.471696
19.862730 -18.697890 21.887420
19.793560 -18.636360 21.818920
3.272447 -17.345728 30.128331
3.304967 -17.518207 30.431845
-14.693120 31.761700 3.200240
17.325890 -9.667150 -30.303070
25.529515 2.059487 24.754980
33.537720 10.979750 -10.788320
31.540830 15.395080 -10.022600
-4.825540 -16.431500 -32.757550
-14.095490 35.148560 3.463580
5.789970 27.051740 -27.682200
23.501901 -20.217549 -24.990119
19.680330 -8.354700 33.814860
-26.758930 -24.422170 -17.752480
-5.271460 40.881260 -2.026070
-5.411990 -18.430270 -36.747550
34.488440 0.813840 -26.335080
-16.023261 -38.826946 -9.440836
41.469570 9.035190 4.003480
-4.228740 -30.736680 -33.149750
-1.723612 -16.691284 42.239005
-19.662874 1.218167 -41.947452
-39.976630 -11.364520 20.088570
43.376185 -12.993812 -11.513691
-30.898580 -28.196830 -20.503080
-34.164830 8.284860 33.392100
45.178340 -10.711090 -12.330130
-28.184150 14.458420 37.028320
47.792410 3.230600 -13.856670
26.179531 -19.448824 -37.533670
21.795240 44.328940 -6.637400
34.787810 -11.500100 35.797330
1.208620 -50.770620 2.217410
-3.630420 -36.150310 -35.478850
23.554680 -44.873000 7.907490
-10.229580 0.547148 51.235410
-43.128260 -22.702480 21.472580
-41.148510 3.022060 -33.930180
-46.655030 -23.192650 13.854940
-10.983278 45.053951 30.422844
10.728001 26.299304 47.212187
-25.892620 -0.543920 -48.712370
6.998159 55.924563 -3.630803
-11.027050 -45.360640 -31.212190
37.362910 -39.874430 -16.679980
4.427800 56.749350 12.608150
7.857682 -18.424643 54.015277
-1.843760 -31.428750 -49.075350
-26.422380 23.298580 46.220100
-2.479145 53.692949 -21.572150
-38.870910 -38.020930 -21.325900
-10.270460 -52.047980 -26.569550
19.358398 -55.502981 5.311671
-39.440340 -38.569740 -21.631680
59.023395 -2.776940 2.473644
-26.770980 -35.587458 -39.095157
26.321660 -40.843630 -35.434340
-10.140270 -52.439150 -26.683260
30.984620 6.742270 50.383760
-8.661440 -40.864150 42.754530
-26.218890 53.360480 3.690990
28.392380 33.814990 -41.274990
13.137720 -20.877130 -55.879910
57.677800 -7.115250 21.080090
23.973516 -36.251526 -43.712072
-17.030550 -58.887240 -8.982480
-28.604279 25.225134 50.033676
-40.270784 -47.749712 -8.470665
-47.971446 -38.251986 -13.621345
-14.814140 46.962650 39.211620
-17.905500 -61.839154 -9.422130
-15.188422 -34.691756 52.709526
34.756010 -7.184510 55.004210
-46.503210 -43.133970 21.964420
50.622570 -38.979860 20.320600
45.267333 46.004157 -19.233649
-59.314450 15.873580 25.852500
-9.976480 -55.106030 -39.198030
-8.184640 -61.349560 28.407560
63.166650 -17.945205 19.516382
-66.056989 20.557763 8.255229
22.549214 -23.901504 62.195119
-65.157690 27.347670 1.037300
55.384620 44.882230 8.610130
-11.763010 -52.544680 51.422120
16.352670 1.845170 -72.752050
51.097680 44.519810 32.359310
72.583680 15.554950 6.860930